ply
format ascii 1.0
comment PCL generated
element vertex 587
property float x
property float y
property float z
property uchar red
property uchar green
property uchar blue
property float nx
property float ny
property float nz
property float curvature
element camera 0
property float view_px
property float view_py
property float view_pz
property float x_axisx
property float x_axisy
property float x_axisz
property float y_axisx
property float y_axisy
property float y_axisz
property float z_axisx
property float z_axisy
property float z_axisz
property float focal
property float scalex
property float scaley
property float centerx
property float centery
property int viewportx
property int viewporty
property float k1
property float k2
end_header
-0.070100471 0.2492622 0.0097648371 114 86 63 -0.57283586 0.24630709 0.78178757 0
0.017487356 0.24945691 0.011018133 152 114 78 0.63968879 0.59048051 0.49206823 0
0.020937465 0.24980395 0.0071622501 168 131 91 0.59901989 0.33984274 0.7250393 0
-0.068787016 0.25554982 0.0079677496 145 108 75 -0.67188507 0.42849287 0.6041227 0
-0.06588687 0.25516078 0.010927939 176 145 116 -0.36369601 0.58191448 0.72739309 0
0.0087095611 0.2571432 0.010856811 111 78 43 1.961487e-06 0.70710719 0.70710647 0
0.015608862 0.25503135 0.007895411 141 106 68 0.54123747 0.33240926 0.77237689 0
-0.06773784 0.25827822 0.0063282908 163 124 91 -0.53916383 0.64699697 0.53916353 0
-0.062950395 0.26078317 0.0080825575 177 135 98 -0.48099443 0.50688237 0.71534228 0
-0.057484955 0.26269269 0.010036128 211 169 127 -0.48130265 0.58008081 0.65715599 0
-0.05390003 0.26335207 0.01185324 199 154 112 -0.14703742 0.73521841 0.66169024 0
-0.0035836289 0.26237208 0.011589685 165 130 93 0.23758563 0.78006631 0.57883459 0
0.0030563627 0.26187456 0.0090852287 154 118 78 0.3104862 0.67849672 0.66576314 0
0.0098746866 0.25985405 0.007850741 125 91 58 0.48612717 0.60390097 0.63165176 0
-0.055762269 0.26784176 0.006975139 133 101 75 -0.35772759 0.55153048 0.753555 0
-0.050948907 0.26611719 0.010389298 180 138 97 -0.27360103 0.68075705 0.67949426 0
-0.045074362 0.26897046 0.0084281173 197 155 111 -0.083587579 0.72766042 0.68082565 0
-0.038392615 0.26808134 0.010003834 154 117 82 -0.024159418 0.77485126 0.63168168 0
-0.031816844 0.26905006 0.0083042076 169 128 88 0.070347324 0.7702204 0.63388622 0
-0.027258666 0.26852006 0.0083036665 137 98 61 0.074148782 0.7711916 0.63227004 0
-0.020422392 0.26727533 0.0093906857 102 75 53 0.020201679 0.80854863 0.58808255 0
-0.015018726 0.2664867 0.0099082123 129 97 65 0.26117495 0.62793344 0.73313528 0
-0.0090317037 0.26555905 0.0095808608 120 88 57 0.11842845 0.76009381 0.63893044 0
-0.0029940358 0.26487434 0.0086924993 143 108 74 0.29443517 0.49430802 0.81790435 0
-0.050432578 0.27043641 0.0064830184 183 144 102 -0.04101574 0.76535088 0.64230502 0
-0.044202607 0.27052605 0.006758994 201 158 114 -0.31978893 0.62576061 0.71144831 0
-0.040425427 0.27047837 0.0072570243 90 70 53 -0.060860105 0.79115677 0.60857791 0
-0.033765234 0.27090499 0.0067557096 171 128 90 0.076267712 0.62267196 0.77875715 0
-0.024435017 0.27000001 0.006072503 0 2 12 0 0 0 0
-0.024 0.27000001 0.0060000001 0 2 12 0 0 0 0
0.041000001 -0.060000002 0.012 0 2 12 0 0 0 0
0.023 -0.055 0.014000001 0 2 12 0 0 0 0
0.029950697 -0.059619978 0.014562179 182 146 112 0.54545462 0.81818175 -0.18181843 0
0.03379675 -0.059999999 0.014812998 0 2 12 0 0 0 0
0.1010465 -0.055566587 0.015385173 177 146 108 -0.84414601 0.30541441 -0.44061279 0
0.10519765 -0.054689359 0.01484526 173 141 106 -0.38294554 0.74655336 -0.54406863 0
0.10673621 -0.053183831 0.016929626 167 137 103 -0.3542183 0.85012323 -0.38964084 0
0.11139587 -0.050575446 0.014860112 134 125 97 -0.56068909 0.82772499 -0.022339191 0
0.11589783 -0.044350706 0.015210152 26 30 29 -0.82416332 0.54944259 -0.13735983 0
0.0036087343 -0.037617177 0.013275325 42 45 35 0.54842919 0.82138449 -0.15669402 0
0.0091431979 -0.039349675 0.0170868 36 25 20 0.40656346 0.77253741 -0.4877418 0
0.11783545 -0.039604228 0.015995046 59 65 59 -0.82454938 0.25407159 -0.50553524 0
0.16768005 -0.038040161 0.014879972 109 110 79 0.85518581 0.36650857 -0.36650896 0
0.16811502 -0.037817448 0.016462419 0 1 4 0.60672402 0.75118101 -0.26002511 0
-0.069068246 -0.03315777 0.015379967 88 101 78 0.4050096 0.8817904 -0.24168751 0
-0.062711462 -0.034241058 0.015323879 92 105 84 0.063447729 0.89266151 -0.44623965 0
-0.056546461 -0.034394287 0.015353782 80 94 67 0.017047944 0.91527838 -0.40246096 0
-0.051528186 -0.034894705 0.014370557 49 59 47 0.010034115 0.90798855 -0.41887471 0
-0.046470188 -0.034497365 0.01584401 77 90 64 0.069673158 0.90575331 -0.41803908 0
0.0019306822 -0.034963328 0.017287068 70 76 62 0.61493993 0.69693226 -0.36896405 0
0.11945701 -0.033857491 0.012803921 108 112 95 -0.92847693 0.37139007 0 0
0.16122374 -0.032001026 0.012285485 215 158 121 0.74099046 0.34549189 -0.57581979 0
0.16433164 -0.034828838 0.016176779 117 79 56 0.53452271 0.80178386 -0.26726058 0
-0.074394934 -0.029014472 0.017148586 100 115 96 0.62378258 0.68616158 -0.37426943 0
-0.0045028087 -0.028342374 0.015132837 41 46 42 0.82956135 0.51847595 -0.20739034 0
0.12358905 -0.02474626 0.014965002 110 87 61 -0.81658804 0.56576681 -0.11441973 0
0.15944052 -0.029529531 0.015326818 204 145 111 0.58926266 0.79933554 -0.11760996 0
-0.10078219 -0.018608904 0.012023382 97 89 78 0.4472135 0.8944273 -5.0842323e-07 0
-0.091448471 -0.02 0.015775761 0 2 12 0 0 0 0
0.12502293 -0.022946572 0.014334083 122 98 68 -0.70771885 0.70571291 -0.033216108 0
0.12912674 -0.020108255 0.015213802 193 146 112 -0.25431314 0.93233651 -0.25704765 0
0.13517731 -0.019475382 0.015261787 210 148 112 -0.066444911 0.93022233 -0.36093143 0
0.1403438 -0.01992845 0.014100869 143 102 81 0.086512715 0.95794332 -0.27360591 0
0.14616917 -0.020580867 0.014841915 144 103 82 0.31319892 0.66245562 -0.68048435 0
0.15239668 -0.023400193 0.014447938 213 153 116 0.40799332 0.82608485 -0.38874844 0
-0.11729115 -0.013115121 0.012569795 27 17 7 0.063564144 0.98524469 -0.1589105 0
-0.11087146 -0.013501602 0.015206535 84 73 59 0.24780561 0.88495833 -0.39426026 0
-0.104907 -0.014910838 0.016725782 133 120 111 0.34874287 0.81373346 -0.46499065 0
-0.022029174 -0.014085584 0.012512032 24 27 32 -0.66956449 0.73213583 -0.12514201 0
0.13985014 -0.017850138 0.017866483 0 2 12 0 0 0 0
-0.12033534 -0.0069106175 0.016036589 121 112 103 0.78811091 0.47286582 -0.39405477 0
-0.11807907 -0.010201616 0.016077187 68 63 55 0.69202304 0.56120324 -0.454043 0
-0.12111938 -0.0024366789 0.013557537 46 55 44 0.99398059 -0.084163487 -0.070136227 0
-0.12121004 0.0025701481 0.01578331 55 69 49 0.99815094 0.049301703 -0.035551962 0
-0.12263324 0.0091214702 0.015300361 76 89 66 0.95747113 0.28748927 -0.024474064 0
-0.17525668 0.016954605 0.014524125 84 98 85 -0.38446468 0.85131449 0.35700226 0
-0.12740713 0.017407138 0.014428513 50 63 38 0.70710719 0.70710647 4.1802153e-07 0
-0.12427212 0.01370552 0.014093084 62 76 51 0.86581218 0.48392919 -0.1272072 0
-0.16939592 0.019428721 0.015161212 28 37 39 -0.36855596 0.90386254 0.21725325 0
-0.16448915 0.020783855 0.015613675 29 36 43 -0.34372929 0.90103847 0.26453704 0
-0.16109148 0.022211002 0.017474003 0 1 8 0 -0.5546999 0.83205056 0
-0.13808869 0.021976929 0.016566411 14 24 16 0.39562839 0.85719484 0.32968953 0
-0.1350373 0.022093747 0.014135639 50 61 52 0.42437336 0.72072601 0.54814339 0
-0.12998575 0.018949013 0.015375381 37 48 28 0.47639516 0.85833281 0.1905584 0
-0.1595404 0.025021465 0.01464399 74 88 76 -0.43161994 0.78514731 0.44412604 0
-0.15250683 0.02694965 0.015913697 81 96 84 -0.13031641 0.75546592 0.64209718 0
-0.14714558 0.028536517 0.014189209 86 103 88 0.21156207 0.74324572 0.63468677 0
-0.14234601 0.025765184 0.015032222 71 84 72 0.25775433 0.43104178 0.86473447 0
-0.15161437 0.030156272 0.01260557 93 109 96 -0.1787039 0.77931488 0.60061067 0
-0.032457568 0.089576498 0.012782242 201 129 104 -0.31622779 0 0.94868332 0
-0.028417369 0.089734197 0.012939312 192 123 99 0.060387075 -0.36232167 0.93009478 0
-0.043083392 0.095291048 0.012905747 99 68 59 -0.51449567 -0.51449567 0.68599445 0
-0.038731221 0.09372557 0.014604506 203 138 110 -0.32887697 -0.49587277 0.80371022 0
-0.032889921 0.093232214 0.01491679 204 131 105 0 -0.47337681 0.88085997 0
-0.027126387 0.093500458 0.015099418 208 129 106 0.10638121 -0.51823795 0.84859437 0
-0.021076053 0.093367517 0.013287939 215 133 111 0.30774334 -0.52885318 0.79095411 0
-0.015438348 0.095657513 0.012411034 225 139 116 0.83205003 0.55470061 0 0
-0.048865587 0.10198817 0.014149621 185 132 101 -0.35320863 -0.30905741 0.88302165 0
-0.045366462 0.099999927 0.014663906 194 132 104 -0.28635693 -0.4004409 0.8704291 0
-0.038915761 0.097932093 0.016718701 204 136 109 -0.23610231 -0.45824865 0.85689199 0
-0.033714991 0.097709857 0.017410399 201 129 103 0.2647976 -0.67189401 0.69169408 0
-0.026828835 0.097699724 0.017069498 228 147 122 0.073186584 -0.39549348 0.91554826 0
-0.020997334 0.098240726 0.016362507 231 144 120 0.18212593 -0.52255183 0.83292848 0
-0.014793536 0.098568901 0.013977348 227 143 117 0.45194161 -0.59786361 0.66204828 0
-0.055374026 0.1053349 0.012812358 136 99 81 -0.3454521 -0.55412269 0.75737101 0
-0.050901491 0.10519356 0.014629249 182 126 100 -0.46786621 -0.23660009 0.85154074 0
-0.046623424 0.10340735 0.016129145 192 130 102 -0.46351656 -0.25168484 0.84959233 0
-0.041880518 0.10490364 0.017903637 194 128 102 0 -0.70710808 0.70710546 0
-0.015060909 0.1040925 0.01703818 234 152 123 0.42673627 -0.28768635 0.85739881 0
-0.010740838 0.10465823 0.015163478 225 147 117 0.51553446 -0.4417285 0.73423445 0
-0.0047613438 0.10760295 0.012364291 217 142 111 0.57735139 -0.57734942 0.57734996 0
-0.063050218 0.11281177 0.012891005 147 108 87 -0.34521025 -0.22169518 0.91196549 0
-0.057840995 0.11242807 0.015273694 187 126 100 -0.41927665 -0.40672514 0.81165373 0
-0.049250625 0.10887612 0.017280143 186 122 95 -0.1909005 -0.22908053 0.95450467 0
-0.012216982 0.10920927 0.017966367 225 148 120 0.27975148 -0.46625224 0.83925444 0
-0.007077028 0.11014377 0.01636349 224 149 119 0.28636605 -0.45405409 0.84369987 0
-0.0036520595 0.11127941 0.015056752 216 143 112 0.41398433 -0.63961112 0.64769942 0
-0.066901892 0.1189268 0.012391329 175 127 105 -0.84799784 -0.31799978 0.4239997 0
-0.064002194 0.11579039 0.013565255 165 120 100 -0.54138267 -0.37091246 0.75453877 0
-0.058820471 0.11527169 0.016626161 187 127 101 -0.26611644 -0.59973931 0.7546488 0
-0.0060225986 0.11400383 0.01785042 217 144 112 0.35223478 -0.31701127 0.88058764 0
-0.0013928855 0.11601964 0.015961453 120 77 61 0.6342231 -0.44217891 0.63422304 0
0.0014612535 0.11743416 0.013919424 172 107 78 0.69717091 -0.30108982 0.65061325 0
-0.067934871 0.12227567 0.012298845 184 128 105 -0.60000002 0 0.80000001 0
-0.064830661 0.12271249 0.015787004 195 130 104 -0.67782295 -0.1805869 0.71270216 0
-0.00088929484 0.12474828 0.017933577 233 157 125 0.51449567 0 0.85749298 0
0.0031677196 0.1204306 0.013849965 219 147 117 0.72708797 -0.27153075 0.6305666 0
-0.067039825 0.1292617 0.014978693 200 131 106 -0.75775069 -0.2089179 0.61819679 0
-0.065320536 0.12948933 0.017211335 206 133 109 -0.44866604 0.021654114 0.89343709 0
0.002842441 0.12735471 0.015641132 246 168 133 0.68413574 -0.10931978 0.72111547 0
-0.068861328 0.13554983 0.015582085 177 117 95 -0.5315187 -0.33303258 0.77883071 0
0.003680106 0.13459992 0.015156913 249 168 133 0.73957455 0.023422344 0.67266691 0
-0.07262376 0.14013581 0.014309339 210 136 109 -0.59246433 -0.15799053 0.78995252 0
-0.068978362 0.1417651 0.017369255 220 149 121 -0.59246415 -0.15799043 0.78995275 0
0.0031125031 0.1413447 0.015807103 231 153 115 0.75471205 -0.039690699 0.65485436 0
-0.073545046 0.14766647 0.013369393 199 144 111 -0.73701358 0.04751081 0.67420602 0
-0.069551095 0.14754698 0.01691575 210 145 112 -0.62584347 0.069090635 0.77688253 0
0.0039410796 0.14629588 0.015208151 226 153 114 0.75545394 0 0.65520179 0
0.0064551695 0.14442788 0.01243041 242 159 119 0.70014 -0.14002816 0.70014006 0
-0.073043153 0.15200926 0.014030881 207 146 113 -0.66701013 -0.095802851 0.73886359 0
-0.070028462 0.15106517 0.015931344 209 147 114 -0.49894163 -0.061559796 0.86444646 0
0.004750011 0.15157397 0.014826215 213 145 111 0.77823937 -0.18042497 0.60149008 0
0.0072070435 0.15579297 0.012321595 0 2 12 0 0 0 0
-0.073915958 0.15897618 0.013431719 197 142 111 -0.86477351 -0.18761827 0.46579626 0
-0.070019946 0.15895118 0.016364904 204 145 112 -0.43812993 -0.044596285 0.89780474 0
0.0044184253 0.15935376 0.016945153 188 129 96 0.92326623 -0.047645204 0.38119453 0
0.0065575158 0.15649499 0.013404141 191 128 99 0.85749292 0 0.51449573 0
-0.073532544 0.16440131 0.014602038 198 144 112 -0.67099941 -0.090824634 0.73587412 0
-0.070265718 0.16259217 0.016569149 213 153 117 -0.59246433 -0.15798995 0.78995264 0
0.009103274 0.16499741 0.015522233 176 117 91 0.57954597 -0.50348908 0.64080048 0
0.013609366 0.16654485 0.013092125 185 127 97 0.40024936 -0.72382361 0.56203187 0
-0.075642683 0.17204107 0.014267452 198 141 106 -0.59842354 -0.14079604 0.78871143 0
-0.069189012 0.16917166 0.017924394 215 156 124 -0.37139022 0 0.92847687 0
0.010848772 0.16962083 0.017192744 63 45 40 0.44112903 -0.51464939 0.73521513 0
0.015448715 0.17078197 0.015158154 154 106 81 0.4734565 -0.56354564 0.67694551 0
0.019223856 0.17121832 0.01252709 50 32 30 0.73225188 -0.40273902 0.54918897 0
-0.078927279 0.17638087 0.012813956 205 150 114 -0.48313326 -0.13724312 0.86472344 0
-0.076016955 0.17783356 0.015107683 201 141 106 -0.57205003 -0.10418514 0.81357497 0
0.017709248 0.17562924 0.017849129 233 164 125 0.7322523 -0.4027378 0.54918927 0
0.021956619 0.17732525 0.013529368 224 151 114 0.78902376 -0.42790025 0.4408434 0
-0.08123558 0.18315409 0.012323313 189 133 98 -0.60000068 0 0.79999948 0
-0.074824728 0.18375865 0.015785757 206 145 109 -0.51508355 -0.0042526457 0.85712945 0
0.022271534 0.18145624 0.015675999 189 126 98 0.8844316 -0.035626281 0.46530789 0
0.024665982 0.18300037 0.013866835 229 153 113 0.6657424 -0.43363205 0.60724813 0
-0.075435102 0.18884957 0.015553624 201 142 103 -0.79255837 -0.13608111 0.59441841 0
0.023291048 0.18623567 0.016467065 229 155 116 0.59572601 -0.11914533 0.79430151 0
0.028728167 0.1893906 0.012894114 221 146 105 0.64511859 -0.26793599 0.71556437 0
-0.076595165 0.19508761 0.014873119 192 135 99 -0.80000019 0 0.59999979 0
0.027855011 0.19547072 0.014716223 222 145 103 0.8462162 -0.0097408723 0.53275067 0
0.029999999 0.19262193 0.012124102 216 141 101 1 0 0 0
-0.07555446 0.19985704 0.016260723 188 131 95 -0.80000019 0 0.59999979 0
0.028057773 0.20064172 0.014919256 224 145 102 0.76129782 0 0.64840239 0
-0.078144319 0.20907652 0.012855677 160 117 82 -0.70710701 0 0.70710659 0
-0.075746015 0.2057381 0.015750404 170 120 85 -0.73893595 0 0.67377573 0
0.027946128 0.2059204 0.015087292 223 145 100 0.73131824 -0.035138194 0.68113059 0
0.030342894 0.20684266 0.012657106 217 142 99 0.70710683 0 0.70710683 0
-0.078081928 0.21001774 0.012914531 158 124 97 -0.7001403 0.14002806 0.70013982 0
-0.075187117 0.21162212 0.015847087 163 117 83 -0.66675395 0.22190264 0.71147615 0
0.028560931 0.2136215 0.01443907 209 138 94 0.70710701 0 0.70710659 0
0.030793987 0.2116548 0.012206011 205 138 95 0.70710683 0 0.70710683 0
-0.073368818 0.21845952 0.015303338 151 106 73 -0.71704656 0.20178524 0.66717833 0
-0.071291864 0.22083554 0.017110404 149 106 72 -0.79430157 0.11914518 0.59572595 0
0.027888069 0.21905963 0.015008243 194 134 92 0.66587216 0 0.74606591 0
-0.073609047 0.22557943 0.013474162 129 91 62 -0.57358748 0.084540159 0.81477016 0
-0.07078287 0.22697566 0.016211061 132 93 63 -0.75277281 0.07944306 0.65346915 0
0.023940783 0.22681023 0.017256252 171 122 82 0.49615574 0.26461616 0.82692671 0
0.02940928 0.22502963 0.013209955 191 138 94 0.68591654 0.19366057 0.70143718 0
0.030186949 0.22371574 0.012424345 193 140 97 0.96469146 0.070392027 0.25380179 0
-0.072162211 0.22935112 0.01362902 123 86 59 -0.97014254 0.24253564 0 0
-0.070820823 0.23220909 0.014695463 116 81 53 -0.88966185 0.19885905 0.4110437 0
0.021016929 0.23278075 0.01776411 165 121 85 0.5841881 0.056367353 0.80965859 0
0.025427537 0.2313709 0.014643159 179 133 93 0.58361906 0.31868669 0.74687856 0
-0.068303056 0.23815441 0.015825929 121 85 54 -0.70514685 0.35765916 0.61224824 0
0.021812981 0.23682129 0.015381566 172 131 92 0.63323754 0.4091557 0.65696412 0
0.024211552 0.23613447 0.013115445 175 136 95 0.80178428 0.26726094 0.53452188 0
-0.0663573 0.2420201 0.015120983 143 103 67 -0.54918903 0.40273806 0.7322523 0
-0.064473882 0.24400312 0.017000437 149 109 72 -0.8158831 0.18934985 0.54633456 0
0.015691372 0.24441154 0.015836468 164 125 88 0.77301335 0.14860651 0.61673856 0
0.020027805 0.24284555 0.013215263 166 126 87 0.55826765 0.39049408 0.73201883 0
-0.066642448 0.24672025 0.012873366 154 115 79 -0.71472538 0.27182955 0.64441937 0
-0.06371177 0.25107694 0.014014763 176 134 96 -0.60033029 0.26721382 0.75379062 0
0.0096712066 0.24953292 0.016334964 150 114 78 0.46668649 0.44120002 0.76651573 0
0.01400624 0.24941865 0.013865287 169 132 93 0.53154147 0.55829388 0.63700199 0
-0.062196977 0.25458774 0.013572223 83 67 54 -0.21006188 0.54552233 0.81134421 0
-0.057120696 0.25484189 0.015342768 162 126 93 -0.37542698 0.49402162 0.78421766 0
-0.00012245867 0.25774628 0.015806146 179 142 98 0.92847669 0 0.37139079 0
0.0040778052 0.25488356 0.016320201 37 29 27 0.61545718 0.49236637 0.61545742 0
0.0082300548 0.25484362 0.013805182 123 94 66 0.4568271 0.5995456 0.65715593 0
-0.055403661 0.25992596 0.014190687 191 149 106 -0.48269665 0.55921727 0.67400289 0
-0.051768411 0.26118138 0.014660396 205 161 118 -0.25609538 0.69774181 0.66900778 0
-0.045732621 0.26122576 0.016502159 208 162 116 -0.22691044 0.45048428 0.86346722 0
-0.038919721 0.26169196 0.016679076 197 153 108 -0.0029702378 0.67348468 0.73919523 0
-0.033489935 0.26207048 0.016929541 196 154 106 1.7539344e-07 0.70710599 0.70710754 0
-0.026724076 0.26161101 0.017388955 185 143 99 1.5359227e-06 0.7071076 0.70710593 0
-0.020004507 0.26308593 0.015243868 146 115 82 0.081621237 0.7784822 0.6223371 0
-0.01476152 0.26089305 0.016596455 76 59 46 0.21360753 0.70803887 0.67309201 0
-0.0092500309 0.26071995 0.015344398 147 112 77 0.12618621 0.83333081 0.53817916 0
-0.0039257267 0.25985563 0.015121465 126 98 70 -0.021214562 0.8297981 0.55766034 0
0.0015416814 0.25965118 0.012857215 57 44 33 0.28891209 0.70693886 0.64557511 0
-0.044823449 0.26487184 0.013210933 187 142 100 -0.07692989 0.70500803 0.70501453 0
-0.039136015 0.26428723 0.014709151 195 151 106 -0.10396034 0.59159082 0.79950774 0
-0.031781502 0.26491982 0.013577585 177 135 92 -0.14352034 0.30722198 0.94075322 0
-0.027892482 0.26538077 0.01307135 196 155 109 0.043636374 0.83830613 0.54345065 0
-0.020186782 0.26511598 0.012741163 42 35 33 0.11704212 0.70224094 0.70225269 0
-0.01356323 0.26443976 0.012243925 152 118 83 0.30150822 0.90453625 0.30150792 0
0.028295517 -0.055055592 0.021007365 180 138 104 0.38602361 0.76813078 -0.5108434 0
0.031225452 -0.057928458 0.020518187 120 99 78 0.61664754 0.51735765 -0.59336919 0
0.098852508 -0.054477692 0.019265201 177 147 111 -0.10540911 0.84327441 -0.52704573 0
0.10335895 -0.053374667 0.019951448 177 144 109 -0.20330429 0.95012313 -0.23650235 0
0.11042763 -0.050049148 0.022095922 188 164 132 -0.62332547 0.76499367 -0.16201876 0
0.11478413 -0.044096183 0.021626264 74 78 64 -0.86428899 0.50289124 0.0102419 0
0.010734918 -0.039423395 0.018127792 235 161 132 0.46852103 0.62469512 -0.62469512 0
0.013674413 -0.039870646 0.019933123 0 2 12 0 0 0 0
0.11649509 -0.039748892 0.018802814 41 46 39 -0.64922869 0.39623576 0.64922982 0
-0.061830129 -0.031757042 0.021028286 86 100 77 0.1419799 0.91063458 -0.38805458 0
-0.055579379 -0.032016046 0.022227639 105 120 90 0.11727675 0.94883335 -0.29319176 0
-0.05150339 -0.032571565 0.02136524 101 119 84 0.062813543 0.95907217 -0.27610707 0
0.0022461407 -0.033779841 0.019466303 44 49 36 0.57735014 0.57735085 -0.57734978 0
0.11972294 -0.031093294 0.020311089 78 87 70 -0.85016519 0.49649328 0.17525311 0
0.16536137 -0.033556242 0.021558195 138 108 80 0.80497038 0.52143353 -0.28307199 0
-0.072271958 -0.029364021 0.020046033 0 2 12 0 0 0 0
-0.070840731 -0.029999997 0.021 0 2 12 0 0 0 0
-0.0030728986 -0.025985247 0.022318877 34 43 33 0.70082384 0.49560243 -0.51305383 0
0.12174284 -0.02718777 0.020503325 97 85 58 -0.88505489 0.46545634 -0.005315261 0
0.15831292 -0.027101919 0.020456143 205 146 110 0.78952688 0.41571635 -0.45147213 0
-0.032558404 -0.023354596 0.021980461 11 14 15 -0.68268585 0.65147477 -0.33093902 0
0.12651047 -0.019795271 0.022002405 47 36 35 -0.63499999 0.7620014 -0.12700023 0
0.13515534 -0.018179441 0.018315818 209 149 113 -0.16903096 0.84515423 -0.50709254 0
0.14998123 -0.020584596 0.018094944 216 154 117 0.63960665 0.63959831 -0.42640057 0
0.15269791 -0.021649471 0.020746574 212 153 115 0.63290739 0.74727398 -0.20250914 0
-0.10496041 -0.013170298 0.020006865 69 57 44 0.32905632 0.87180936 -0.36286408 0
-0.09965574 -0.014644963 0.021613233 83 73 64 0.46852118 0.62469542 -0.62469482 0
0.13025743 -0.017519752 0.023196477 199 140 108 -0.43685651 0.89015853 -0.12951532 0
0.13421878 -0.017000001 0.021341857 213 148 113 0 1 0 0
0.14085299 -0.017520469 0.021383902 213 152 118 0.20351438 0.97888076 -0.01934584 0
-0.11658856 -0.0091652488 0.022065034 88 82 71 0.71620238 0.66530818 -0.21075881 0
-0.11126776 -0.011950743 0.018892037 6 0 0 0.18115418 0.93596238 -0.3019233 0
-0.12038569 -0.0027652406 0.019624846 58 72 51 0.95936245 0.26636878 -0.093119837 0
-0.18715253 0.0048053237 0.019175846 79 90 80 -0.39578673 0.77614123 0.49087432 0
-0.18445884 0.0043445076 0.022262491 79 91 75 -0.55734771 0.7418589 0.37283897 0
-0.12098241 0.0035558839 0.02019906 95 111 80 0.99281406 0.076452389 -0.092060566 0
-0.18168046 0.0079948502 0.02281348 68 73 64 -0.68309337 0.47233462 0.55703086 0
-0.17826326 0.011628301 0.022913106 91 85 71 -0.33922622 0.40707228 0.8480671 0
-0.12097026 0.0089703146 0.021771867 84 98 71 0.97173959 0.050557747 -0.23057801 0
-0.17204681 0.016447406 0.022332266 57 70 67 -0.35201442 0.72930151 0.58669001 0
-0.16661695 0.017918449 0.023924073 23 33 42 -0.4237884 0.78237778 0.45638627 0
-0.12827611 0.016637482 0.021577964 99 115 84 0.4038457 0.91463202 0.018892372 0
-0.12290484 0.014302453 0.021253316 79 93 67 0.5681954 0.76809597 -0.29526693 0
-0.16989514 0.018495172 0.019182364 56 72 62 -0.47733402 0.87511313 0.079556711 0
-0.16399035 0.019752353 0.022167239 23 32 43 -0.13184951 0.95872861 0.25190315 0
-0.16109852 0.020750724 0.022259962 16 20 28 -0.27565399 0.88821775 0.36753798 0
-0.15265608 0.021901706 0.02302839 58 71 71 -0.094842859 0.92509389 0.36770391 0
-0.1459268 0.021434329 0.021882994 62 76 69 0.28953019 0.73781615 0.60975373 0
-0.1410533 0.020710655 0.020687593 76 91 79 0.2790494 0.79515803 0.53838205 0
-0.1358099 0.018937392 0.020651121 71 85 70 0.29255125 0.87429136 0.38733476 0
-0.13003899 0.018070173 0.01846901 107 124 88 0.24096571 0.88354111 0.40161008 0
-0.15031496 0.024388894 0.018631373 61 75 63 0.024095401 0.76456869 0.64409178 0
-0.14895198 0.024482075 0.018348889 44 55 47 0.14659412 0.69946772 0.69946772 0
-0.038888119 0.10101956 0.018048663 210 141 112 -0.36514795 -0.18257409 0.91287112 0
-0.032847993 0.10040279 0.018707609 208 136 110 0.39673188 -0.31122208 0.86356509 0
-0.023249011 0.10184807 0.018620402 235 150 125 0.094034441 -0.33709213 0.93676382 0
-0.04328699 0.107144 0.018692326 203 135 106 -0.30209282 -0.24740815 0.92061341 0
-0.039888591 0.10522699 0.018866703 212 142 112 -0.23343045 -0.36090878 0.90291476 0
-0.031449396 0.10407194 0.019810703 213 140 110 0.19662938 -0.27451015 0.9412657 0
-0.027613381 0.10369512 0.019520592 229 150 122 0.020115988 -0.3885923 0.92119014 0
-0.019941164 0.10522337 0.019336142 230 147 120 0.031172054 -0.34094992 0.93956453 0
-0.016752798 0.10654396 0.01867646 227 147 118 0.39662662 -0.33534414 0.85453588 0
-0.051430475 0.11344735 0.019482665 146 98 80 -0.30831173 -0.51134288 0.80216724 0
-0.045012102 0.11178298 0.020141663 204 139 110 -0.27552795 -0.41332895 0.86789608 0
-0.03804151 0.10993122 0.020742754 73 50 46 -0.1834324 -0.35378963 0.91716164 0
-0.032879319 0.11035776 0.021876315 224 148 117 -0.12870926 -0.26622164 0.95528001 0
-0.026316047 0.11071132 0.022044651 114 76 67 0.038876947 -0.27755821 0.9599219 0
-0.020131746 0.11160782 0.021789273 211 131 107 0.10495356 -0.32326958 0.94046873 0
-0.014419901 0.11074861 0.019750768 229 151 126 0.42577693 -0.45667264 0.78113008 0
-0.010734219 0.11289865 0.019066133 201 121 100 0.21647154 -0.27399874 0.93705112 0
-0.055504531 0.11655299 0.019223744 195 130 107 -0.39504653 -0.5117721 0.76290733 0
-0.049475696 0.11681795 0.021196477 171 117 96 0.089898698 -0.29871118 0.95009989 0
-0.045697119 0.1180064 0.022085473 206 139 112 -0.21465285 -0.13325363 0.96755755 0
-0.038546 0.11603723 0.022300348 209 141 111 -0.12591164 -0.20940821 0.96968776 0
-0.033198725 0.11645351 0.02327049 215 145 115 -0.15693359 -0.17963612 0.97113478 0
-0.027111612 0.11725818 0.023540389 216 144 121 -0.028576495 -0.21266313 0.97670758 0
-0.021181179 0.11646579 0.023368232 174 83 74 0.077872634 -0.34350228 0.93591774 0
-0.014984757 0.11557786 0.021956641 125 71 66 0.28696123 -0.31974834 0.90300286 0
-0.0087018451 0.11797421 0.020651728 210 125 107 0.29848176 -0.2931982 0.90826398 0
-0.0025207144 0.11884665 0.018193081 112 81 69 0.35223472 -0.31701139 0.88058758 0
-0.061367281 0.12325145 0.018703377 194 128 104 -0.36514828 -0.18257414 0.912871 0
-0.055728823 0.12325148 0.0211422 206 138 112 -0.38795945 -0.20839785 0.89780724 0
-0.050757885 0.12275908 0.022507766 208 139 113 -0.17916669 -0.34051841 0.9230094 0
-0.044335302 0.12216565 0.02314523 195 129 101 -0.12183858 -0.25604463 0.958956 0
-0.037224654 0.12135407 0.02375086 130 69 41 -0.18007068 -0.39615527 0.90035301 0
-0.012648686 0.12330067 0.023170436 246 161 130 0.38093704 -0.01364006 0.92450035 0
-0.0087054735 0.12230637 0.021413891 237 157 122 0.47765905 -0.063892201 0.87621897 0
-0.0019854531 0.12349713 0.01867488 137 95 78 0.4962728 -0.1313988 0.85816532 0
-0.06292522 0.12800616 0.018661261 201 132 106 -0.36415634 -0.057070307 0.92958766 0
-0.05681121 0.12926872 0.02224539 154 100 85 -0.35071543 -0.39582604 0.84871691 0
-0.012748188 0.12625138 0.023374094 238 149 117 0.44721362 0 0.89442724 0
-0.0089660231 0.12860715 0.02227205 188 123 96 0.32065493 -0.093004704 0.94261897 0
-0.0031913621 0.12879665 0.019877357 224 148 113 0.47528249 -0.1039916 0.87366599 0
-0.063508391 0.13461137 0.019713687 212 137 113 -0.57599932 -0.20866719 0.7903688 0
-0.056918602 0.13374966 0.023145055 229 146 120 -0.52990472 -0.18053259 0.82861876 0
-0.012199035 0.13298246 0.023994254 220 137 103 0.43193427 -0.2591601 0.86386853 0
-0.0095933834 0.13314445 0.023056878 141 88 70 0.15523973 -0.22349995 0.96226209 0
-0.0027578843 0.13505843 0.020495335 229 150 112 0.39963213 -0.079474173 0.91322398 0
-0.063414328 0.14144528 0.020800959 229 146 118 -0.44756696 -0.068265334 0.89164096 0
-0.05717871 0.13932702 0.023435477 236 148 123 -0.44337761 -0.13070168 0.88675439 0
-0.0071709715 0.14243813 0.023585485 254 172 134 0.44721365 0 0.89442718 0
-0.0031974376 0.14103262 0.021279799 200 131 99 0.58315933 -0.093880095 0.80691499 0
-0.067474283 0.14538479 0.018685896 218 147 117 -0.44022551 0.17608956 0.88045102 0
-0.06292294 0.14722835 0.021557799 228 152 121 -0.60000038 0 0.79999971 0
-0.059545778 0.14761782 0.023581689 237 152 123 -0.37139082 0 0.92847669 0
-0.0066662556 0.14753786 0.023333129 252 176 133 0.44721368 0 0.89442712 0
-0.0027106572 0.14810318 0.021226395 114 75 60 0.51449585 0 0.85749292 0
0.0012032334 0.14641464 0.018729022 225 150 111 0.80000001 0 0.60000008 0
-0.066939831 0.15372965 0.01806017 221 150 120 -0.70710659 0 0.70710701 0
-0.062374562 0.15303297 0.021929307 229 151 120 -0.52784592 0 0.84934014 0
-0.059316501 0.15163335 0.023673402 229 150 120 -0.37139082 0 0.92847669 0
-0.0035845572 0.1530423 0.021952026 205 137 105 0.8142783 0.0022553471 0.5804702 0
0.0015648087 0.15414262 0.018576395 208 145 107 0.59999985 0 0.80000013 0
-0.066709623 0.1584491 0.018766897 215 148 114 -0.6479224 -0.14938268 0.74691451 0
-0.06340798 0.15849876 0.021194017 227 152 120 -0.60000038 0 0.79999971 0
-0.058000498 0.16057198 0.023617428 231 154 121 -0.19519755 0.096678019 0.97598737 0
-0.0031699659 0.15874441 0.022645041 228 156 118 0.51136422 -0.23011854 0.82798076 0
0.0025719674 0.16175069 0.0193877 204 145 111 0.40300256 -0.51976192 0.7532838 0
-0.068008684 0.16628259 0.018495655 222 156 122 -0.44721362 0 0.89442724 0
-0.063167304 0.1663079 0.021384079 231 163 126 -0.46860656 0 0.883407 0
-0.056811184 0.16481647 0.023958374 237 166 127 -0.28299424 -0.092055492 0.95469368 0
0.0030110602 0.16542268 0.021709705 189 130 94 0.55325598 -0.43064061 0.71306133 0
-0.067093283 0.17258103 0.01972767 217 158 121 -0.43193418 -0.25916094 0.86386836 0
-0.06321568 0.17126898 0.021912821 223 162 125 -0.52470946 -0.091324799 0.84636861 0
-0.059281357 0.17335549 0.023824038 213 153 120 -0.48313275 -0.13724327 0.86472368 0
0.0051975986 0.16803071 0.02161495 192 132 98 0.48137292 -0.35300714 0.802288 0
0.0092588859 0.17056827 0.019772589 115 80 66 0.19391283 -0.90835005 0.37053728 0
0.014047245 0.17330702 0.018789912 166 107 75 0.51464927 -0.73521519 0.441129 0
-0.068948403 0.17549454 0.019482147 213 153 116 -0.51911402 -0.15682918 0.84019357 0
-0.063352183 0.17744677 0.022610262 213 154 121 -0.39917696 -0.22121911 0.88978642 0
0.014526682 0.17565878 0.021442266 197 133 100 0.48114023 -0.6509589 0.58715981 0
-0.068061277 0.18336983 0.020958114 216 153 117 -0.51665789 -0.06584689 0.85365611 0
-0.06483832 0.18295699 0.022653826 215 156 119 -0.58258033 -0.071100503 0.80965728 0
0.016796207 0.18032379 0.023333315 236 160 124 0.68041396 -0.27216583 0.6804136 0
0.019569689 0.18352892 0.020860223 118 80 66 0.90033358 -0.16164932 0.40406555 0
-0.072909728 0.19002932 0.019090278 207 145 106 -0.70710659 0 0.70710701 0
-0.07016468 0.18953049 0.0209131 210 147 109 -0.54581589 -0.11685389 0.82971698 0
-0.065646224 0.19072545 0.023320643 213 150 114 -0.70536226 -0.070187241 0.70536357 0
0.020685825 0.18879117 0.020693775 197 130 98 0.80568647 -0.16506745 0.56887776 0
-0.073629655 0.19556166 0.018370353 198 140 100 -0.70710665 0 0.70710695 0
-0.067639045 0.1946203 0.022089848 203 142 105 -0.36996621 0.021016821 0.92880744 0
-0.065867998 0.19718793 0.023131998 194 136 99 -0.70710707 0 0.70710659 0
0.020726264 0.19658813 0.021731554 226 147 106 0.68733919 -0.11019299 0.71792912 0
-0.069257401 0.20092712 0.020964528 196 139 100 -0.65367347 0.041091073 0.75566036 0
0.020706164 0.2032665 0.022009021 222 144 100 0.58257794 0 0.8127749 0
0.024731718 0.2010985 0.019024376 224 144 100 0.79999983 0 0.6000002 0
-0.073245585 0.20613362 0.018052652 179 129 92 -0.51449537 0 0.85749316 0
-0.068973146 0.20743439 0.021346131 177 122 84 -0.76131201 0 0.64838576 0
0.021862853 0.20698282 0.021282289 206 134 92 0.51449579 0 0.85749292 0
0.0249344 0.20974429 0.018754134 217 142 100 0.79999983 0 0.6000002 0
-0.068944663 0.2133223 0.021336691 177 124 86 -0.77836949 0.02364132 0.62736118 0
0.020320164 0.21429215 0.021729225 180 119 80 0.61616385 0.1092523 0.78000385 0
0.025091004 0.21126366 0.018545328 216 143 98 0.79999989 0 0.6000002 0
-0.067821279 0.2193553 0.021430938 177 124 88 -0.74527198 0.11929428 0.65600199 0
-0.064696103 0.22083503 0.02374723 198 136 97 -0.63960248 0.42640111 0.63960207 0
0.019790227 0.21888608 0.022055542 164 111 75 0.8974843 0.048564088 0.4383646 0
0.024202019 0.21763815 0.018098487 184 126 86 0.59999979 0 0.80000025 0
-0.06683363 0.22482972 0.021765275 164 114 78 -0.78087372 0.13644765 0.60960501 0
-0.064742416 0.22343177 0.023628792 183 127 89 -0.44721362 0 0.89442724 0
0.016544785 0.22767356 0.022552302 154 105 72 0.51179361 0.10235833 0.85298896 0
0.019621013 0.22461218 0.020720849 169 120 83 0.63120437 0.17382178 0.75588822 0
-0.066284515 0.23039539 0.020636408 135 95 60 -0.7001403 0.14002788 0.70013982 0
-0.064217441 0.22968435 0.022350242 165 117 81 -0.53375274 0.25641859 0.80582726 0
0.01457309 0.23235619 0.022686239 162 116 81 0.49547255 0.22635759 0.83861148 0
0.020359177 0.22995837 0.018820003 168 122 86 0.6973998 0.11103548 0.70802873 0
-0.064022265 0.23661721 0.020202512 141 99 64 -0.68454534 0.27220675 0.6762405 0
0.0093763098 0.23746903 0.023930246 168 126 88 0.51708776 0.36196178 0.77563137 0
0.014032934 0.23771369 0.020978572 102 77 58 0.50993651 0.35397363 0.78400725 0
0.018851917 0.23525755 0.018732283 125 80 49 0.55708617 0.37139088 0.74278122 0
-0.061561435 0.24255893 0.020386098 153 109 72 -0.67805332 0.13756402 0.7220248 0
-0.0572991 0.24502189 0.022325287 160 116 78 -0.38711956 0.14944947 0.90983695 0
0.0044659572 0.24347308 0.023592265 149 109 74 0.4813731 0.35300621 0.80228835 0
0.0086098425 0.24316819 0.021666523 159 119 84 0.32131746 0.45735168 0.82920718 0
0.014409174 0.24107571 0.018999539 110 84 63 0.48318353 0.49550036 0.72181237 0
-0.06182272 0.24691805 0.018631311 162 118 81 -0.57637489 0.43845546 0.68960047 0
-0.056877919 0.24928516 0.020294726 191 147 106 -0.41453996 0.54807526 0.72647786 0
-0.051679254 0.24943438 0.022622045 182 133 93 -0.41172844 0.53018546 0.74120378 0
-0.0060920715 0.2519024 0.022681411 160 122 86 0.21199977 0.63599807 0.74199903 0
-0.0020374744 0.25042698 0.02252344 171 134 92 0.30207974 0.58241397 0.75467992 0
0.0022845734 0.24992442 0.021120824 179 139 99 0.3017827 0.62640345 0.71871126 0
0.0085394671 0.24709809 0.018892497 163 126 89 0.54342103 0.48330238 0.68637627 0
-0.05178488 0.25492683 0.019525331 122 96 72 -0.4913643 0.42995465 0.75742996 0
-0.045031779 0.25403625 0.021867817 161 124 90 -0.22510988 0.48852593 0.84301126 0
-0.039533298 0.25533977 0.022225656 205 158 112 -0.11896763 0.66332978 0.73881 0
-0.03291814 0.2558887 0.022831848 149 116 84 -0.050318114 0.712942 0.69941521 0
-0.027272388 0.25605977 0.022658862 115 87 62 -0.028219434 0.458287 0.88835621 0
-0.021603653 0.25561145 0.022764405 165 122 83 0.13825108 0.47863561 0.86706096 0
-0.015523084 0.25448373 0.022581769 59 48 40 0.12194227 0.67068112 0.73165357 0
-0.0090352818 0.2549473 0.02096089 133 100 68 0.16926633 0.59460974 0.78599507 0
-0.0029689786 0.25467372 0.019711629 167 129 90 0.47907588 0.63214034 0.60900319 0
0.0018128139 0.25237346 0.019531291 159 120 82 0.27870032 0.50494474 0.81691921 0
-0.043972161 0.25937799 0.018230952 205 158 112 -0.20578389 0.49483049 0.84427232 0
-0.038515959 0.2596699 0.018785456 199 153 107 -0.098110311 0.67885327 0.72768986 0
-0.032213546 0.25980806 0.019123212 83 65 52 -2.2571903e-07 0.65915549 0.75200671 0
-0.026585173 0.25919881 0.019801198 200 157 114 0 0.7071079 0.7071057 0
-0.020874137 0.25972828 0.019225771 178 137 96 0.043848854 0.69760394 0.71514064 0
-0.011650017 0.25803316 0.018643081 167 132 94 0.10976242 0.68053919 0.72444367 0
0.02948663 -0.054622326 0.028445173 194 145 113 0.48056978 0.86502463 0.14417055 0
0.030430252 -0.054634515 0.024655838 177 145 107 0.63499993 0.7620014 0.12700005 0
0.10773951 -0.052053928 0.024757788 181 147 110 -0.2860387 0.9534626 0.095346995 0
0.11215175 -0.046794623 0.026656518 190 172 141 -0.77290612 0.62693024 -0.097850665 0
0.11654837 -0.0389277 0.027235052 97 95 79 -0.93638122 0.3206366 -0.14276674 0
-0.046000004 -0.030000001 0.028000001 0 2 12 0 0 0 0
0.0053276448 -0.034151975 0.026279638 17 15 3 0.19477202 0.97386187 -0.11686318 0
0.0083991531 -0.034606755 0.027081195 10 10 0 0.14704262 0.73521435 -0.66169363 0
0.11776499 -0.035470013 0.026551347 59 64 58 -0.89442688 0.44721425 0 0
0.1662605 -0.033260494 0.027245197 141 120 89 0.70710778 0.70710576 -9.6466601e-07 0
-0.067808799 -0.02796264 0.02603736 146 159 124 -4.9470003e-08 0.70710695 -0.70710659 0
-0.0626624 -0.028378218 0.026923025 103 111 91 0.2123898 0.88769954 -0.40850958 0
-0.057940908 -0.029129261 0.027678942 85 95 81 0.16675051 0.88034075 -0.44406575 0
-0.05162973 -0.029580628 0.028389722 103 118 85 0.050125502 0.95238388 -0.300753 0
-0.045046002 -0.029684067 0.027753675 34 40 37 -0.19518003 0.97590011 -0.097590059 0
-0.041353092 -0.029573362 0.025059635 96 113 79 -0.23570228 0.9428091 -0.23570228 0
-0.00039691883 -0.027740052 0.027717099 79 89 64 0.14213374 0.92386985 -0.35533437 0
0.0021128433 -0.029634586 0.026313329 52 60 42 0.91090667 0.18917091 -0.36669254 0
0.12114139 -0.028880883 0.026263585 100 95 66 -0.93028849 0.24131419 -0.27628031 0
0.16118209 -0.026970157 0.026999917 208 147 109 0.85749245 0.51449656 0 0
0.16266766 -0.029505752 0.025811683 211 147 111 0.8361246 0.43478572 -0.33445045 0
0.12433159 -0.021705505 0.025162127 128 97 78 -0.78550422 0.5953607 -0.16890468 0
0.12671968 -0.01846705 0.02596348 193 134 100 -0.77743554 0.61547124 -0.12957287 0
0.14978212 -0.018168066 0.02554699 211 151 115 0.27247751 0.93853241 -0.21192671 0
0.1538935 -0.019608289 0.027036101 206 147 113 0.80178314 0.26726121 -0.53452337 0
0.15687022 -0.02165355 0.028537434 202 145 109 0.68409109 0.65760368 -0.31555781 0
0.1300054 -0.016107434 0.027658274 203 143 107 -0.34671137 0.79528832 -0.49730042 0
0.13484839 -0.014959243 0.027464338 210 146 110 -0.19631615 0.91555887 -0.35101551 0
0.14016581 -0.015157165 0.02603153 216 152 116 0.10950384 0.91164112 -0.39613035 0
0.14597523 -0.01561082 0.027096743 214 152 115 0.38694906 0.84735221 -0.36368209 0
-0.11566535 -0.0087938057 0.026147017 69 67 59 0.77437282 0.57397211 -0.26627547 0
-0.11052912 -0.008708939 0.027951583 103 96 80 -0.077813983 0.53678352 -0.84012407 0
-0.10533535 -0.0093013756 0.028235976 60 49 41 0.26860577 0.80581713 -0.52774018 0
-0.10180879 -0.0097624138 0.029962547 80 69 51 0.1605864 0.96351784 -0.21411534 0
-0.192 -0.0049999999 0.024 0 2 12 0 0 0 0
-0.11843643 -0.002817851 0.02776137 56 60 47 0.98058063 0.19611652 0 0
-0.18192232 0.004949172 0.027448852 132 149 122 -0.53081787 0.81883758 0.21848886 0
-0.11910781 0.0035982486 0.027505888 110 127 91 0.9882732 0 -0.15269636 0
-0.18056542 0.0076720351 0.025140215 131 154 120 -0.58591384 0.70509279 0.39943594 0
-0.17704968 0.0097953286 0.026354847 37 36 37 -0.53916311 0.64699703 0.53916413 0
-0.17378078 0.011664422 0.028109614 0 2 12 0 0 0 0
-0.1200785 0.011667091 0.024176417 73 85 61 0.89087111 0.089087613 -0.44543472 0
-0.11897856 0.0084409909 0.02823559 101 118 82 0.99784225 0 -0.065656088 0
-0.17410745 0.013557592 0.024891723 94 76 56 -0.66943932 0.60858071 0.42600542 0
-0.17002991 0.014943237 0.026957646 46 58 57 -0.4179658 0.84097588 0.34360468 0
-0.1643056 0.016575299 0.029740401 28 38 50 -0.34188113 0.91168457 0.22792231 0
-0.1404331 0.017192509 0.028650869 23 35 44 0.14249405 0.85496497 0.49872881 0
-0.13454898 0.017555716 0.025704252 77 90 80 0.15475151 0.94482988 0.28870139 0
-0.12795763 0.015683865 0.02752446 79 92 77 0.2296558 0.95683926 0.17809221 0
-0.12435262 0.014870185 0.026539983 67 82 58 0.055231381 0.99834883 -0.015780369 0
-0.11966066 0.012642648 0.028002579 131 148 114 0.97014284 0.24253435 0 0
-0.16376711 0.018457815 0.025317267 30 43 53 -0.40824735 0.81649703 0.40824836 0
-0.15842475 0.019980216 0.025535857 28 40 51 -0.095865749 0.9471283 0.30619904 0
-0.15309584 0.019899664 0.026405092 13 22 34 0.18727152 0.74765003 0.63714105 0
-0.14749604 0.018971177 0.026248852 19 32 41 0.30381018 0.87468195 0.37766489 0
-0.14155783 0.018458713 0.025687568 14 27 36 0.066890061 0.96990508 0.23411514 0
-0.031828329 0.11998224 0.024 194 128 101 0 0 1 0
-0.020880656 0.11915917 0.0243078 218 139 117 0.31633678 -0.27518448 0.90785706 0
-0.044386711 0.12540604 0.024162419 223 145 122 0 -0.37139103 0.92847657 0
-0.041215897 0.12473502 0.02428052 221 147 117 -0.47480693 -0.10373837 0.87395465 0
-0.032273836 0.1232581 0.024945391 153 104 84 -0.063333243 -0.22002065 0.97343713 0
-0.028622249 0.12332686 0.02527014 180 126 102 -0.0033300349 -0.26116127 0.96528947 0
-0.020329038 0.12318984 0.024677258 244 165 130 0.19956052 -0.13385876 0.97069949 0
-0.01589318 0.12283056 0.024530506 237 151 118 0.31068492 -0.18641087 0.9320547 0
-0.050216671 0.12940946 0.024530321 228 147 121 -0.15414883 -0.15817331 0.97530472 0
-0.045275979 0.12852988 0.02470378 241 155 129 -0.097146183 -0.097146325 0.99051762 0
-0.038781486 0.12849542 0.025744427 241 158 128 0.00781631 -0.1257787 0.99202752 0
-0.032961905 0.12855299 0.025761241 238 160 126 -0.065938026 -0.13187605 0.98907077 0
-0.027941417 0.12805231 0.026000001 176 118 96 0 0 1 0
-0.021283945 0.12900119 0.025488129 227 147 112 0.11462998 -0.15789925 0.98077917 0
-0.017208563 0.12904176 0.024999999 220 141 108 0 0 1 0
-0.054671086 0.13464215 0.024265673 231 147 123 -0.24246506 -0.024118736 0.96986026 0
-0.050899792 0.13553201 0.025001204 243 150 126 0 -0.078814611 0.99688929 0
-0.04338792 0.13343766 0.025340402 251 156 131 -0.28299406 -0.092055239 0.95469379 0
-0.039169647 0.13503593 0.02675215 254 159 131 -0.091471136 -0.16384518 0.98223615 0
-0.033612609 0.13331233 0.026619921 249 165 131 0 -0.13131174 0.99134111 0
-0.026695965 0.13482489 0.026918504 206 138 108 -0.075769015 -0.15164384 0.98552686 0
-0.02018024 0.13544157 0.026524363 216 140 104 0.19245011 -0.19245031 0.96225047 0
-0.01624226 0.13544877 0.025281483 208 130 99 0.41497666 -0.2377892 0.87820876 0
-0.010849327 0.13622123 0.024244243 78 52 46 0 -0.19611634 0.98058069 0
-0.054875202 0.13988492 0.024393577 245 152 127 -0.19519739 -0.096678019 0.97598737 0
-0.050999999 0.14042205 0.025238566 0 2 12 0 0 0 0
-0.045987193 0.13988462 0.025985157 251 156 131 -0.18739399 -0.096965827 0.97748709 0
-0.039866246 0.14048526 0.027083004 253 162 135 -0.071719319 -0.1254158 0.98950857 0
-0.03513832 0.14088848 0.027271096 252 164 135 -0.11473157 -0.062222034 0.99144596 0
-0.027395785 0.1405286 0.027580578 243 160 124 -0.029681366 -0.054000501 0.99809968 0
-0.021968063 0.14054787 0.027578805 223 145 108 0.16385369 -0.081380732 0.98312217 0
-0.015295622 0.14022437 0.026254281 244 160 122 0.18324338 -0.061626442 0.98113412 0
-0.0097799869 0.14110635 0.024792681 253 170 132 0.15269661 0 0.98827308 0
-0.055540491 0.14656965 0.025023989 244 151 126 -0.31321755 -0.061314721 0.94769996 0
-0.05087148 0.14530246 0.025900312 251 154 129 -0.10624661 -0.065415591 0.99218571 0
-0.046557147 0.14634782 0.026751332 252 159 133 -0.25185412 -0.027099565 0.96738565 0
-0.039471474 0.14757562 0.027963707 252 164 133 -0.065656014 0 0.99784237 0
-0.033066262 0.14622465 0.027996585 144 95 80 0.010155974 -0.060935732 0.99809003 0
-0.02631917 0.146421 0.027447021 238 158 122 -0.070888929 0 0.99748421 0
-0.020599473 0.14568242 0.027035631 223 146 111 0.27408153 0.068200275 0.95928514 0
-0.016248623 0.14585882 0.025981173 158 107 85 0.17381249 -0.15452854 0.97257912 0
-0.010585548 0.14733794 0.025000002 255 180 141 0 0 1 0
-0.05626915 0.15282524 0.024768468 237 152 123 -0.28494689 0 0.9585433 0
-0.050755024 0.15316568 0.02535771 175 112 94 -0.1468548 0.112636 0.98272413 0
-0.046796929 0.15353039 0.026681229 252 168 132 -0.37139082 0 0.92847669 0
-0.039423831 0.15114713 0.027960066 200 130 105 -0.098537654 0 0.99513334 0
-0.034338262 0.15139294 0.028000001 63 44 41 0 0 1 0
-0.026397089 0.15245901 0.027700245 241 166 130 -0.027163973 -0.081341729 0.99631608 0
-0.020512309 0.15324049 0.027418718 226 152 116 0.164399 0 0.98639399 0
-0.015370871 0.15171282 0.026796019 231 153 119 0.081387013 0 0.99668258 0
-0.010547858 0.15230736 0.025248867 252 174 136 0.28721228 -0.11666374 0.95073587 0
-0.054253958 0.15738973 0.024522059 246 166 131 0 0.19611634 0.98058063 0
-0.051847704 0.1597421 0.024915313 244 169 135 -0.14098087 -0.028196152 0.98961073 0
-0.045084216 0.15927157 0.026417445 234 160 127 -0.17811297 0.15293041 0.97205353 0
-0.039301619 0.15952638 0.027284205 225 157 126 -0.12277167 0.099274218 0.98745722 0
-0.034547675 0.15839192 0.027759289 174 121 99 0.22323316 0.033175372 0.97420037 0
-0.025869107 0.15815258 0.027999999 216 154 124 0 0 1 0
-0.022007406 0.15889972 0.027892247 212 150 120 0.055204675 -0.065855265 0.99630088 0
-0.01562159 0.15914387 0.027261389 225 154 120 0.19382894 -0.099729329 0.97595304 0
-0.0094943419 0.15889934 0.025952382 243 169 135 0.41043738 -0.22919235 0.88261652 0
-0.05575661 0.16574433 0.024256539 228 163 127 -0.2185777 -0.096705131 0.97101587 0
-0.05144069 0.1651793 0.025142036 232 162 129 -0.086120583 -0.080947712 0.99299073 0
-0.045167767 0.16540805 0.02632118 178 124 101 -0.20917688 -0.15399168 0.96567672 0
-0.039002042 0.1655782 0.027463445 161 112 93 -0.21029551 -0.10554832 0.97192353 0
-0.033444747 0.16498412 0.028114391 160 108 84 -0.027227191 -0.13630848 0.99029225 0
-0.025642898 0.16484131 0.028118271 187 130 104 0.038785718 -0.078311279 0.99617422 0
-0.021494651 0.16592368 0.028665155 151 110 93 -0.031061059 -0.18636879 0.98198873 0
-0.014368663 0.16485925 0.02838454 208 145 113 -0.01742138 -0.4701699 0.88240391 0
-0.0089884587 0.16518071 0.027431458 232 162 126 0.24397244 -0.47659156 0.84459341 0
-0.0043549128 0.16515818 0.025664119 228 157 117 0.42975533 -0.46068832 0.77658004 0
0.0010706352 0.16760671 0.02464702 184 125 93 0.46568993 -0.54330659 0.69853485 0
-0.054090291 0.1725944 0.026052361 190 134 103 -0.26724443 -0.32069367 0.90870017 0
-0.049757332 0.17122982 0.027086703 181 124 100 -0.23392859 -0.43463755 0.86969399 0
-0.04425732 0.17138365 0.028426504 136 88 69 -0.12417448 -0.59913611 0.7909593 0
-0.039167583 0.17175619 0.029911926 159 121 100 -0.14847808 -0.65330565 0.74239212 0
-0.033480439 0.16955046 0.029207289 112 81 63 -0.12502114 -0.32219717 0.93838084 0
-0.027535155 0.16887552 0.029218897 76 36 19 0.0086139943 -0.16017146 0.98705161 0
-0.0026097526 0.17093024 0.028414052 219 151 114 0.34472582 -0.56434202 0.75012141 0
0.0019126175 0.1708726 0.025799641 201 137 101 0.48604095 -0.51877487 0.70330411 0
0.0070819105 0.17283246 0.02438293 181 122 88 0.5048269 -0.56421864 0.65330487 0
-0.060957585 0.17800477 0.024083477 200 143 113 -0.57777858 -0.26962927 0.77037138 0
-0.056608994 0.17735167 0.026538782 194 139 108 -0.50851607 -0.28848037 0.81128943 0
-0.052352641 0.17711952 0.029024702 192 138 109 -0.3404102 -0.48720548 0.8042087 0
-0.046462744 0.17452805 0.029868837 149 101 79 -0.21289867 -0.47902197 0.85159385 0
0.0049402551 0.17495948 0.02786392 210 146 113 0.55486315 -0.47902596 0.68019193 0
0.0095756529 0.17735407 0.026279658 214 145 112 0.5331108 -0.49515408 0.686014 0
0.012551684 0.17968899 0.026128817 231 156 124 0.19611627 -0.58834773 0.78446507 0
-0.062234774 0.18391393 0.024932576 210 152 116 -0.42972392 -0.061090261 0.90089136 0
-0.0566855 0.18146269 0.027965624 200 142 111 -0.51092577 -0.19120161 0.83809125 0
0.0098347068 0.18244435 0.028793836 234 158 122 0.56504351 -0.27435115 0.7781114 0
0.014299566 0.1847536 0.026060291 235 158 122 0.61541218 0 0.7882055 0
-0.062843144 0.18900828 0.025409691 210 149 113 -0.59779054 -0.13860685 0.78957874 0
-0.057282444 0.18901511 0.028660553 207 148 111 -0.54638171 0 0.83753622 0
0.017007066 0.19004852 0.025228625 235 156 117 0.24018194 -0.13898174 0.96072716 0
-0.064153649 0.19353716 0.024846351 205 144 106 -0.70710695 0 0.70710659 0
-0.057803903 0.1949525 0.028625252 200 138 102 -0.55855089 -0.17170595 0.81150353 0
0.015086712 0.19365999 0.02642793 230 153 113 0.70834804 -0.071165517 0.70226663 0
-0.063492917 0.20056354 0.026424088 200 139 99 -0.61659229 -0.1482055 0.77320707 0
-0.057648033 0.19888555 0.029811181 201 139 102 -0.51449615 0 0.85749269 0
0.011058411 0.20267713 0.02995619 236 161 119 0.59999985 0 0.80000013 0
0.015462133 0.20046772 0.026363181 225 149 107 0.67789674 0 0.73515713 0
-0.062916927 0.20679317 0.026955595 191 133 94 -0.55075157 -0.026472934 0.83424932 0
-0.0588472 0.20539245 0.029255485 206 141 100 -0.61339253 -0.070714362 0.78660613 0
0.011799676 0.20849216 0.028501892 176 109 67 0.70013988 0.14002815 0.70014024 0
0.015628466 0.20775275 0.025823954 212 139 98 0.57847452 0.058866721 0.8135736 0
0.018331759 0.20905632 0.02433648 205 132 89 0.89442724 0 0.44721362 0
-0.06669943 0.21287411 0.024110101 192 133 94 -0.59441859 0.13608107 0.79255819 0
-0.06483835 0.21271558 0.025621237 190 132 94 -0.60000002 0 0.80000001 0
-0.059422027 0.21109076 0.029526973 198 136 94 -0.54788911 0.11210882 0.82900488 0
